# .PCD v0.7 - Point Cloud Data file format
VERSION 0.7
FIELDS x y z
SIZE 4 4 4
TYPE F F F
COUNT 1 1 1
WIDTH 1539
HEIGHT 1
VIEWPOINT 0 0 0 1 0 0 0
POINTS 1539
DATA ascii
-4.1123352 1.7792196 0.65313959
6.4742446 1.7430946 0.6311636
7.1998606 1.6755664 0.76428133
9.1235008 1.7645578 0.68340474
-0.67390668 1.8428488 0.62421799
3.7214031 1.9593902 0.67882347
6.0582156 1.9484985 0.78903532
8.1356173 1.9265169 0.62421721
9.2224455 2.0984068 0.64427137
-4.054944 2.6177716 0.76704931
10.466899 2.826417 0.69223976
9.8691635 3.3080113 0.73185158
-5.5048218 4.3671932 0.68659973
-5.3153558 4.7698889 0.69934845
5.1526079 4.6737056 0.68285179
21.000515 5.4121389 0.73457718
24.665667 5.6697674 0.67967719
18.601967 5.8015723 0.60610676
18.989199 5.8745885 0.68224621
24.63723 6.2565184 0.61504173
7.056026 -1.887393 0.98284382
7.5816231 -1.8844001 0.84315509
8.5537405 -1.8400561 0.96498442
8.2002726 -1.7828064 0.93695605
-5.6872182 -1.4103546 0.89702898
8.2339926 -1.4452424 0.89048636
8.8439417 -1.4027309 0.81554228
10.233135 -1.4172664 0.98632479
-5.4038906 -1.2811792 0.94375479
-4.6374259 -1.2382951 0.83238554
-1.7673417 -1.2070153 0.83523083
4.0568247 -1.2133994 0.91390896
-5.6612682 -1.1020942 0.8879168
-5.0489731 -1.0664473 0.94174099
-4.670527 -1.1460612 0.83587027
-1.7749673 -1.1884515 0.91972208
4.742619 -1.082222 0.99452913
5.0236034 -1.0489597 0.9908151
5.4170127 -1.0019194 0.95978856
5.8839064 -1.0331231 0.97907126
8.1109228 -1.0505154 0.98808193
-5.2905903 -0.88287878 0.91839623
-5.0469861 -0.92259943 0.93637955
5.2921762 -0.975541 0.9535017
6.2802124 -0.86062253 0.99011457
6.5144958 -0.97026104 0.99999082
9.8537693 -0.97773749 0.93442523
10.129647 -0.91254574 0.90025663
-5.3469887 -0.64512074 0.83743924
-5.0746646 -0.67388427 0.97324884
-5.6541305 -0.49368674 0.89846373
-5.2319317 -0.46320742 0.97177225
9.9756222 -0.5635587 0.95024991
10.33138 -0.58500457 0.91255993
-5.6477675 -0.28743643 0.91299927
-5.4689198 -0.29617259 0.9463228
3.239809 -0.2560825 0.9915446
-5.6474214 -0.13839708 0.9040668
-5.4529991 -0.088143796 0.95025915
10.324322 -0.14994755 0.91064793
-5.6870275 0.10049096 0.89565045
-5.4573455 0.11037506 0.94349861
3.1275365 0.17039584 0.96417761
-5.671185 0.27994859 0.88948071
-5.2152109 0.30262184 0.95693851
2.9773574 0.35569662 0.90833712
3.0447121 0.23318036 0.93450689
10.305569 0.20784473 0.90157604
-5.3658876 0.49730784 0.98606992
-5.1861424 0.47981066 0.93693191
2.9558263 0.55995125 0.87688577
7.8401132 0.41397741 0.96403211
10.309875 0.55609488 0.89916408
2.8835082 0.72529459 0.81621194
2.9606328 0.87333387 0.95961297
9.7308378 0.88896483 0.83476508
10.289877 0.91313982 0.90369439
2.0942988 1.3703361 0.8409729
9.8675785 1.2890136 0.99991584
10.114614 1.3174722 0.93873811
0.72190565 1.4686177 0.92452431
1.8310404 1.4433385 0.88806367
9.8779964 1.5742199 0.93629563
1.7726475 1.6261034 0.98014575
6.9342847 1.7769473 0.88247681
10.26412 1.6156082 0.82314944
9.0223236 1.8071426 0.96804309
-0.86897433 2.016382 0.92839718
9.4729996 2.2078092 0.97833514
9.8264189 2.2880683 0.97297835
10.48906 2.4393957 0.83231217
10.224 2.7418332 0.83439136
-5.5094247 2.917027 0.93109608
-2.5034893 2.9401631 0.8766613
9.9026823 3.7931108 0.98611385
-78.418449 4.4682636 0.84839249
19.049953 5.0863242 0.85827094
24.432323 5.6624322 0.98663527
20.778435 6.230175 0.98142242
22.89167 6.3738604 0.94894981
23.663948 6.2445402 0.89076042
24.543179 6.244873 0.9135437
23.224697 6.4150257 0.94193649
23.944313 6.5060759 0.90790749
23.783821 6.9350529 0.87032509
7.7572956 -1.8620169 1.0594788
8.5263386 -1.8312137 1.0256928
9.3933468 -1.809309 1.004832
-5.187645 -1.7424248 1.064683
9.1229162 -1.7973598 1.1192054
9.7880583 -1.7855326 1.1509303
10.272188 -1.640409 1.0887027
-4.2049274 -1.5130956 1.1637564
-5.040421 -1.2168868 1.1361613
-4.67066 -1.280423 1.1085699
9.9289703 -1.2766227 1.1766124
-5.0596337 -1.0051897 1.1074288
-4.7032881 -1.1138346 1.0939195
3.8102298 -1.0389421 1.1223166
4.1933827 -1.1011673 1.1075163
4.3107071 -1.1953089 1.1378241
7.3800178 -1.0425868 1.0534447
7.7057385 -1.0956566 1.1073165
-5.0091786 -0.95351887 1.0804539
3.4734964 -0.85640407 1.041597
6.9100471 -0.91744828 1.0291703
-5.4544868 -0.69146478 1.0706153
-5.2814856 -0.64275455 1.0975959
3.3900192 -0.6369437 1.1143473
3.7229199 -0.6733135 1.1639159
4.5747643 -0.61363959 1.107343
5.5723953 -0.63074994 1.0396912
6.2104645 -0.63766748 1.0223117
6.8275881 -0.67847967 1.0182905
-5.2553091 -0.49396822 1.0578009
3.3553264 -0.51192713 1.1144946
3.4212112 -0.59620494 1.08983
5.1512794 -0.42903608 1.0827827
5.8369994 -0.5673418 1.0453318
7.5941796 -0.56255531 1.0938373
7.731842 -0.51388514 1.1717453
3.258996 -0.28943121 1.0708041
3.6299357 -0.38926578 1.1666641
4.2615786 -0.38316494 1.1169221
-5.5275602 -0.15987545 1.037518
3.1690459 -0.1261937 1.024688
7.6755013 -0.057356775 1.0793216
9.9480524 -0.12173297 1.0854367
3.1242857 0.057523135 1.0484024
3.2683034 0.17353991 1.0650144
9.9472733 0.16957483 1.129514
-5.6784744 0.29208961 1.0578545
-5.3696957 0.2202509 1.0433896
-5.1916294 0.39805496 1.1005559
7.6910901 0.32687166 1.0748547
9.5688896 0.32573485 1.1924057
9.9526253 0.20846754 1.0790222
-5.1777887 0.46544772 1.1116569
6.7056723 0.50274909 1.1179829
9.4915152 0.52120447 1.069809
9.8787155 0.53754175 1.0142486
-5.6702299 0.73073268 1.0701056
3.2866249 0.66007781 1.1638036
3.1766007 0.90722573 1.1172955
3.239398 0.91193014 1.1701031
5.7746954 0.95551574 1.1580546
7.6383939 0.96248245 1.115278
9.5115242 0.96899652 1.1147597
-5.6263275 1.0482128 1.0510669
6.081718 1.0037912 1.1602269
7.2091541 1.1560508 1.1418184
8.8877316 1.1047758 1.1926423
-5.6524234 1.2815903 1.0016344
1.4024719 1.3782978 1.0111523
3.0518756 1.2391503 1.024374
6.5078301 1.2767301 1.1940749
7.4391732 1.365561 1.128377
7.753315 1.333613 1.1158597
8.8802662 1.3059947 1.1714141
9.5403099 1.3690062 1.1433151
0.92020965 1.5951355 1.1832495
3.1095657 1.4207608 1.1030416
3.2294323 1.4094496 1.193212
6.9161525 1.4789245 1.1135182
8.0038538 1.5703582 1.097814
-5.6458197 1.7972314 1.0099674
-4.1244149 1.7382944 1.0580018
0.57955128 1.6229517 1.1434975
1.2643962 1.7654834 1.1909246
1.7561696 1.6311734 1.0103817
2.6029904 1.7571529 1.0301031
8.2347221 1.7315277 1.1605093
9.3459301 1.7725978 1.0600067
-3.286819 1.8739295 1.1140399
-2.9048553 1.8320737 1.0052195
-0.87277704 1.9296613 1.0576553
7.4398127 1.8003343 1.0477154
7.7892141 1.8214197 1.1670821
9.811614 1.8701242 1.0351123
-78.317581 2.1990077 1.1917191
-4.3113184 2.150466 1.0264263
5.1651564 2.0676105 1.1285496
5.3660688 2.0758903 1.1423779
6.8442502 2.001368 1.118947
8.7637625 2.0452065 1.1383659
8.9060764 2.0658135 1.156041
-5.5503092 2.2550485 1.0913541
10.052108 2.2730424 1.169569
9.5303478 2.583391 1.0858428
-4.3045197 2.6030076 1.1573577
-2.5436769 2.641089 1.138752
9.8595829 2.6117053 1.0937685
9.5897179 2.9169803 1.0688972
9.8881264 3.0915973 1.0682073
9.7403698 3.2340236 1.0156949
10.044884 3.2430582 1.053072
9.5559025 3.4166453 1.0120249
10.291701 3.6418388 1.1996002
9.5744295 3.8526359 1.1052322
9.7370453 4.0431437 1.0651898
9.9001284 4.0443611 1.1804752
-5.4683743 4.3037391 1.0240889
19.087372 4.391778 1.1242119
19.116129 4.4226542 1.0937456
-5.304431 4.7130079 1.0371857
1.7699039 4.7504625 1.1690445
4.2544031 4.9285102 1.0237713
4.5459037 4.9343028 1.0198727
4.9779906 4.9536991 1.0573969
5.7395506 5.0278659 1.1404953
23.839123 5.2897782 1.0502338
24.039371 5.3020806 1.1861553
24.362537 5.6527801 1.1487501
24.291714 6.3144722 1.0669441
22.158287 6.5245814 1.1288996
24.177334 6.526597 1.0154724
23.576113 6.8464799 1.1621943
24.109184 6.9722719 1.0014429
0.42097211 -1.8679091 1.3186398
0.81439292 -1.8465236 1.3641987
1.3986683 -1.8451962 1.3493762
1.7935899 -1.8471969 1.3448315
6.9441404 -1.8696811 1.3120638
7.5606704 -1.8558252 1.323916
9.2442036 -1.8099387 1.2458578
-5.2684765 -1.6999062 1.3072748
8.6357775 -1.7755452 1.3808327
9.0609741 -1.7595885 1.3197584
9.8997564 -1.4302273 1.2725097
-4.6768203 -1.2660433 1.2710092
8.240839 -1.3866529 1.370434
-5.0545249 -1.0869732 1.3473493
-4.8038793 -1.0825349 1.2510552
-4.6962624 -1.144276 1.2223748
-4.0094233 -1.1316531 1.2992218
-3.976203 -1.1153018 1.2679377
-2.2379649 -1.1569489 1.3371291
-2.1806226 -1.1722765 1.2263989
-1.683652 -1.078624 1.3491974
3.4955955 -1.042171 1.2978745
-5.3098769 -0.80569208 1.2638996
-4.9265771 -0.82082909 1.2918583
3.4132533 -0.98490733 1.3052031
9.9717388 -0.91217339 1.3289626
-5.4457798 -0.7005955 1.3022922
-5.3292332 -0.61658925 1.3061054
-4.9021444 -0.79458684 1.2302845
-5.4740458 -0.4714542 1.3212194
-5.2845578 -0.52329683 1.3525617
-5.1399889 -0.46491039 1.2940248
9.9622898 -0.52170432 1.379693
-5.4595909 -0.28866136 1.3305793
-5.346065 -0.26515698 1.3016257
-5.4447403 -0.084328227 1.3318841
9.9678421 -0.11422265 1.375458
9.2807312 0.14198279 1.2542114
-5.2156744 0.30469075 1.2351984
-5.1897683 0.4788534 1.210188
-5.5444727 0.93647563 1.3946314
3.3393292 0.97097629 1.3528144
3.7823753 0.91032434 1.2270879
9.5390816 0.97068202 1.3706641
-5.6100073 1.0153072 1.3828475
4.2672582 1.0154885 1.2390401
4.5476398 1.116004 1.2537088
4.9431162 1.1606135 1.2347747
-5.6228576 1.3276775 1.3902955
4.7409868 1.2817177 1.2799325
5.429913 1.3333292 1.263464
5.7154517 1.3277639 1.2182595
6.297101 1.346055 1.3704054
6.5787196 1.3504084 1.2254169
8.216754 1.304168 1.3236876
9.8450851 1.3151386 1.3341795
3.3396566 1.5999534 1.2648706
9.5037003 1.4772577 1.2544318
-5.6286459 1.6867249 1.3504348
-4.1597381 1.7220056 1.2647543
0.34642673 1.7701676 1.3830247
0.89897919 1.7750673 1.2164698
2.9924293 1.7801685 1.2041974
3.2678423 1.7883122 1.2383909
7.4862947 1.7223215 1.3816464
7.8029299 1.7806518 1.2319198
9.8792076 1.7027111 1.3109596
-5.5976672 1.8320225 1.2830764
-3.2077789 1.8457425 1.2316532
0.2240724 1.8768036 1.3887124
2.7312412 1.9305966 1.3287525
3.3068466 1.8351989 1.2599177
6.0272245 1.8639097 1.2619629
6.960803 1.9974468 1.2568393
-2.9927366 2.0248475 1.3317585
-0.78730226 2.0357075 1.2146778
1.4893942 2.0056577 1.3520813
1.9753313 2.0228238 1.3258934
4.2130098 2.1034107 1.2701683
4.5951109 2.117888 1.2281742
5.7784605 2.0622385 1.3062539
6.2719498 2.1414289 1.3038682
7.3985782 2.0437145 1.2199228
7.7325802 2.0900083 1.231087
8.0472946 2.1094365 1.2254666
8.758399 2.1337056 1.2634478
9.2513561 2.1534517 1.3675547
8.9360323 2.2055619 1.3187804
10.309384 2.3114476 1.3099022
9.5897121 2.5651731 1.2078838
9.8064575 2.5742936 1.2375546
10.24193 2.5441823 1.3380668
5.0631995 2.7035298 1.292593
10.309379 2.6757522 1.3730392
9.8119917 2.9978478 1.2916198
10.312695 3.0735319 1.330515
9.9587584 3.2038698 1.315239
10.242411 3.2832618 1.2560985
9.9360104 3.5660143 1.2695818
10.311522 3.6221557 1.2387609
9.8989534 4.0160184 1.3190002
-5.2768831 4.6529913 1.385664
0.43451631 4.8889561 1.3222389
0.81262779 4.8623352 1.3832874
2.1967034 4.8565168 1.2656002
2.4852562 4.8531628 1.2670879
2.8826084 4.8565264 1.2404385
3.2842152 4.8598194 1.2247467
3.6831915 4.8621149 1.2233772
4.0905771 4.8689938 1.2120609
-0.97936887 5.0559049 1.3394743
-0.66199338 5.0287991 1.3327255
-0.23413742 5.0657897 1.3194294
2.4336011 5.4717002 1.213871
24.3894 5.6306648 1.2781875
24.668106 6.2952642 1.3642354
24.379116 6.5141001 1.2632045
22.156837 6.7019758 1.3757305
22.744873 6.6324387 1.3692799
24.531443 7.0044985 1.2767315
-0.77429128 -1.852671 1.5773516
-0.5629456 -1.8430194 1.5681076
0.00045084953 -1.8486563 1.4445229
1.9869889 -1.8300041 1.4164658
6.6542225 -1.8315237 1.5200583
7.7724133 -1.8266709 1.4048213
2.0056047 -1.4865739 1.4152846
5.3011942 -1.4766972 1.5489147
8.4952955 -1.5121399 1.4814653
8.9827518 -1.4210389 1.5962298
-5.0148168 -1.2653263 1.522552
-4.9996285 -1.2245654 1.5739169
-5.0198689 -1.0265484 1.570704
-4.9806557 -1.0113775 1.5668286
-3.8588338 -1.0773789 1.4832222
-3.7106476 -1.0832447 1.5009463
8.91716 -1.0892179 1.5854952
-5.0032363 -0.96297199 1.4309702
-4.8930535 -0.82077616 1.4687972
8.9502583 -0.80754155 1.5697751
-5.409822 -0.70076025 1.5361602
-5.2668734 -0.61400563 1.5237179
3.4061291 -0.68516713 1.4005461
10.111471 -0.63970613 1.5880271
-5.3055902 -0.48805642 1.4611583
8.4354973 -0.59739035 1.5089746
8.8970394 -0.53210616 1.5811822
-5.4181814 -0.29314852 1.5373558
-5.3827996 -0.29434848 1.4383373
3.4149981 -0.28395557 1.5433468
8.946538 -0.31436372 1.5598691
-5.4455833 -0.095291257 1.40818
-5.3820009 -0.15581572 1.4674232
-5.1622734 -0.19332702 1.5196302
8.9286232 -0.18786508 1.5885777
-5.4628987 0.14815806 1.5240282
-5.2422624 0.095639192 1.5937208
3.4476242 0.065935194 1.5436407
8.885232 0.15175574 1.4886699
9.7781229 0.17278357 1.4058799
10.193126 0.14471376 1.5071601
-5.6564922 0.31342879 1.4979515
-5.4053845 0.20579286 1.5101895
-5.2311478 0.28824025 1.5913301
-5.6259966 0.5309788 1.4473817
-5.5720167 0.55134791 1.5879221
-5.2197533 0.47239074 1.5757933
-5.1831617 0.5873037 1.4120946
8.9297657 0.49871427 1.530915
9.496685 0.52252293 1.4093803
9.8282642 0.52356815 1.4732599
10.330894 0.47085154 1.4988191
-5.6267471 0.67009431 1.4819216
-5.5376835 0.6701842 1.5313017
-5.2365971 0.67464352 1.5557784
-5.1815414 0.69964981 1.5631214
8.9638567 0.72902739 1.4994674
9.9716949 0.67507672 1.5488911
10.391651 0.76501608 1.4994822
-5.6106453 0.91293144 1.4840746
-5.5813112 0.94120377 1.5777134
-5.2177835 0.91901517 1.5537338
-5.1876855 0.91439235 1.5662184
8.940979 0.91219866 1.5133065
10.133534 0.87590921 1.4472914
10.362192 0.87589401 1.4360733
-5.6109762 1.1499267 1.5134708
-5.5861974 1.1202769 1.5408163
-5.204073 1.0924613 1.5845325
-5.1832733 1.0766985 1.5486791
5.6751518 1.1616646 1.5919249
10.313115 1.1127052 1.4665823
-5.6250129 1.3600228 1.5192332
-5.5250831 1.3645053 1.4320363
-5.2073097 1.2534811 1.5500829
-5.1800351 1.2902679 1.568728
6.3244677 1.2549641 1.4253492
8.9200001 1.3562249 1.4611127
10.073901 1.3239264 1.438406
-5.6088438 1.5554323 1.5223798
-5.5925608 1.5660431 1.4785159
-5.1008263 1.465873 1.5632594
8.9384995 1.6894262 1.501377
9.3052635 1.7300941 1.439867
-0.63509852 1.932709 1.4680882
-0.23195577 1.9840978 1.4635353
0.44792205 1.9609423 1.4811931
8.7364845 1.8869709 1.4880238
-5.2291007 2.1048336 1.5829201
3.7710073 2.0855474 1.4288588
8.6565781 2.0994701 1.4239578
9.1762724 2.0002809 1.5233006
-3.6242285 2.3893156 1.5193033
-2.5127084 2.4277215 1.406929
8.9170837 2.5088379 1.4747796
10.054558 2.5636592 1.4003296
10.464725 2.5206561 1.4854507
9.8268194 2.7913115 1.5137606
-2.4885585 2.8571 1.5329428
-2.5713377 3.2164807 1.4372768
10.419908 3.6505513 1.4161434
9.8352194 3.9623713 1.5347805
10.111416 3.8281803 1.514677
1.1888657 4.832315 1.4690456
1.213155 4.8357391 1.4510422
1.7898626 4.8262649 1.4341393
-3.2901573 5.0998125 1.4324818
-1.3233731 5.0107503 1.4474831
24.563044 5.6811695 1.4371221
14.79296 6.3810205 1.5258121
15.009736 6.4060383 1.5873117
15.428689 6.4930964 1.51297
15.605587 6.5180631 1.5280075
24.674477 6.5958014 1.451158
16.118254 6.6079617 1.4875679
16.654463 6.7037668 1.4448051
16.871098 6.7433853 1.4253502
-55.055527 -3.7352707 1.7726173
2.1597619 -1.7573076 1.6935806
6.9434562 -1.7726023 1.713941
8.6123123 -1.6863685 1.7556186
10.299664 -1.652743 1.7797208
2.0673473 -1.4144975 1.6663628
2.4122577 -1.4237865 1.657012
8.9313898 -1.4440066 1.6319424
9.865243 -1.478138 1.796791
-5.2907343 -1.2779107 1.7303365
-5.015439 -1.2314103 1.6305761
-4.9775262 -1.3802611 1.6955057
-5.2445755 -1.0794952 1.7625718
-2.3130226 -1.0981584 1.6642885
5.818531 -1.0709751 1.7361224
6.7387114 -1.0929163 1.6031767
8.9532499 -1.0141106 1.6347038
-5.6244402 -0.95244467 1.6271234
-5.2389884 -0.8087039 1.7111356
-5.1594353 -0.97696185 1.672714
-4.9781299 -0.95045328 1.6067754
-4.0040512 -0.99603987 1.6401649
5.8545246 -0.89496756 1.7309637
10.35023 -0.95235485 1.721818
-5.5397129 -0.70642805 1.6395772
-5.207242 -0.64613825 1.7064211
5.7986465 -0.74620521 1.7580714
6.2464199 -0.74949789 1.7875816
7.3993769 -0.70047355 1.735652
8.9746256 -0.64885557 1.6400876
-5.4423037 -0.52349699 1.6884968
-5.0758653 -0.44371587 1.6957525
8.9045925 -0.47416377 1.6021869
10.294548 -0.49070451 1.7874249
-5.4225993 -0.30936167 1.6252928
-5.2148452 -0.28427273 1.6443737
-5.1639977 -0.26917526 1.627497
8.9854498 -0.34478694 1.6046686
10.266741 -0.206168 1.6927724
-5.4332962 -0.10629006 1.621546
-5.2990885 -0.10601009 1.6715659
-5.2548943 0.11435236 1.6444719
-5.1837025 0.11392418 1.6452088
-4.6869359 0.13720244 1.7534466
-5.6315346 0.23867944 1.7967088
-5.2720394 0.26439905 1.6974816
9.0140533 0.23681509 1.6169162
10.275955 0.20445082 1.7656469
-5.2195415 0.51476812 1.7177576
-5.1909189 0.51861995 1.6205031
-4.5022388 0.54546303 1.7778739
-5.5716496 0.75445235 1.628436
-5.2003818 0.70899093 1.6225202
-5.17275 0.71139008 1.7948356
8.9961882 0.69596171 1.6176872
10.378143 0.66581261 1.7944381
-5.3907814 0.99646938 1.6071362
-5.1826167 0.8767184 1.7019815
-4.3367219 0.98833311 1.7338715
3.2829001 0.92868441 1.7999647
10.333745 0.9424057 1.7281177
-5.1649399 1.0716673 1.7585905
5.6533279 1.0871804 1.6648006
-5.2061176 1.2656105 1.7487483
-5.018167 1.2304822 1.7957765
-4.2390299 1.3428376 1.7418755
4.835371 1.3603255 1.6937746
5.3509107 1.2526653 1.6663773
10.169107 1.3360345 1.7677026
-5.12044 1.4662011 1.6898379
4.6849155 1.4162358 1.7539996
9.2907896 1.4978758 1.6452687
9.8895683 1.4136121 1.6993489
-5.1348433 1.615609 1.6117258
9.3425722 1.713079 1.7941527
10.19522 1.7717921 1.7770376
-3.3347442 1.8678526 1.6726189
-1.609859 1.9906173 1.7528687
-0.87493849 1.9773688 1.64958
4.011374 1.899179 1.7451458
9.1743364 1.9808888 1.7226663
-5.2088647 2.1289697 1.6927152
-2.5370669 2.0782886 1.7699492
-2.0189614 2.0004642 1.7657604
3.3882418 2.0708451 1.7488806
9.2711468 2.1065426 1.751615
3.3387039 2.2186589 1.7953863
3.8042233 2.226851 1.7890081
10.373979 2.2907739 1.6648197
10.355601 2.5696781 1.7873062
-2.5212584 2.6042604 1.6368542
10.35596 3.000562 1.7444745
10.468519 3.062469 1.6635094
-2.5117157 3.2727714 1.7547235
9.9122343 3.9073243 1.6905196
-1.6149092 4.8941278 1.7967529
24.73428 5.7278371 1.7477328
14.551294 6.3196087 1.7074738
22.15807 6.679287 1.7384434
3.9583607 -1.8024124 1.8272066
5.9540267 -1.6448578 1.890152
6.6083183 -1.7944392 1.8249401
7.4254427 -1.7739687 1.9212155
7.7206082 -1.7949957 1.8008951
8.1616592 -1.6235242 1.8468109
2.2178936 -1.4058832 1.8755059
5.6817679 -1.4634908 1.8846188
6.1830101 -1.494006 1.874984
6.6896162 -1.5261357 1.9012001
7.0552015 -1.5137515 1.8797809
7.4279966 -1.4642713 1.8382361
7.8154078 -1.5382227 1.858673
8.1113834 -1.4451865 1.8572681
9.4600601 -1.4995295 1.9102201
-5.2591772 -1.2999389 1.8925748
3.377563 -1.3902982 1.9507875
4.7138395 -1.3662214 1.9273911
5.0873823 -1.312024 1.8939655
5.4747658 -1.3040187 1.866702
10.313534 -1.2596761 1.8444418
-5.2554035 -1.0811011 1.8019233
-3.8903172 -1.0164585 1.9214641
-3.7466989 -1.0579405 1.8541498
2.193336 -1.0127854 1.9727879
4.7434587 -1.1700702 1.9332292
4.9161825 -1.1233381 1.8963809
5.4567742 -1.1698377 1.8091495
8.3051615 -1.0583417 1.9729398
-5.2228308 -0.97698438 1.8004787
2.8332403 -0.84581578 1.983423
3.360095 -0.94160593 1.9083028
6.1949325 -0.93139005 1.8619213
6.5262437 -0.95921934 1.8530172
7.0243239 -0.93083286 1.8204999
10.415215 -0.82888114 1.8486496
-5.2205219 -0.69851255 1.9481008
-4.8455753 -0.65767872 1.8920757
2.8276007 -0.73708373 1.9940453
3.3670962 -0.67920089 1.9295483
6.4574299 -0.71457607 1.8933089
7.0612283 -0.65925407 1.9179659
-5.226861 -0.45527357 1.9460192
-5.0223656 -0.58521849 1.8617781
3.3156881 -0.51536214 1.9032375
-5.124104 -0.27977151 1.9250642
3.3341122 -0.3054074 1.899681
13.151468 -0.28882551 1.8424606
-68.231163 -0.11440563 1.8962288
-5.6789494 -0.15838933 1.8513699
-5.1403303 -0.14338988 1.9712439
3.3256054 -0.15185487 1.9130999
3.4031844 -0.026442438 1.948607
-4.9942279 0.15084571 1.8132744
3.3249879 0.10185556 1.9044547
3.4029961 0.13748711 1.9558358
10.400974 0.18632171 1.9303812
3.3482995 0.25342768 1.9338453
-5.1884403 0.47002605 1.8356351
3.3507333 0.53229702 1.8923301
10.407957 0.56200874 1.8926497
-5.6603708 0.79993618 1.8692064
-5.1502409 0.67072648 1.9773403
3.281734 0.69634724 1.8758612
3.4008093 0.62706876 1.9007635
-5.172617 0.87313253 1.9839243
-4.5048428 0.97249132 1.8286382
3.4007435 0.95546156 1.9148121
-5.014204 1.0680081 1.833413
3.2833972 1.0058017 1.8172183
3.4153152 1.1261079 1.8879657
-5.6441336 1.2758017 1.8467522
-5.0195208 1.2448106 1.8328696
3.3847775 1.2989661 1.843362
3.5519285 1.2869356 1.8910904
9.8990755 1.3922127 1.8046179
-5.3627439 1.4573607 1.8946825
-5.1358232 1.4736326 1.9323387
3.6779945 1.4318984 1.8705949
-5.631422 1.7534531 1.8190651
-5.1727314 1.7072579 1.9766883
-3.4058509 1.7962174 1.8491602
9.2613096 1.6607635 1.9024162
-5.220964 1.9736601 1.8089392
-5.184011 1.8133304 1.9130578
-4.1032052 1.9027593 1.9549365
3.475045 1.824964 1.8545237
9.9026985 1.9078693 1.8050871
-5.3599701 2.0962648 1.9510789
-3.0434747 2.1953814 1.8980269
10.40158 2.3366647 1.8799782
-5.3582478 2.5531902 1.8584352
3.396858 2.5086658 1.8134079
10.469321 2.5311255 1.9259205
-2.5482903 3.1642962 1.9198275
10.351935 3.3283491 1.825189
10.322785 3.7968564 1.8519063
-4.0202026 5.0822878 1.8476019
-3.3181396 5.0093594 1.8834448
24.00177 5.2633686 1.8524761
7.2003164 6.3945417 1.9893494
8.6878471 6.2178488 1.8660736
9.1399183 6.2675142 1.8523273
24.746712 6.3527956 1.8202496
8.5103931 6.4921846 1.9357243
24.532345 6.990304 1.8251867
-55.684616 -3.0755782 2.0269318
2.2909377 -1.6235994 2.1946125
6.924242 -1.6683837 2.1243801
7.523735 -1.7957146 2.0110226
3.4275978 -1.4011352 2.1133261
9.4257822 -1.4188131 2.0779514
-5.2511034 -1.316354 2.1416426
-4.615181 -1.37712 2.1926124
4.7335148 -1.3888336 2.1317186
9.7770538 -1.2315757 2.0854623
10.290236 -1.2845509 2.0205081
-5.6173458 -1.0358329 2.1556516
-5.2423091 -1.0228965 2.0661423
-5.0451436 -1.0827063 2.1892211
3.3205354 -1.0345368 2.0044088
4.7512884 -1.141102 2.0730865
5.5110235 -1.0951537 2.1761208
5.6269426 -1.1027807 2.143223
10.370136 -1.0410066 2.1653743
-5.3017969 -0.95923913 2.1438007
-5.1489048 -0.85625523 2.1006296
2.5348165 -0.87781078 2.0748997
2.6762624 -0.86119199 2.1410418
2.8519464 -0.89498842 2.1132531
3.38311 -0.84958661 2.019501
6.4977622 -0.96425217 2.1435606
6.8745604 -0.80953145 2.0298548
10.429794 -0.82776189 2.1442838
13.05464 -0.80835843 2.1748962
-4.9843941 -0.60621846 2.1722341
2.7929428 -0.67946243 2.1422327
2.9024172 -0.73538184 2.046499
6.5105019 -0.6673466 2.0600586
6.9775481 -0.78121716 2.0162621
-5.6006036 -0.44872665 2.1566873
-5.2912436 -0.47676945 2.1401293
-5.1598806 -0.45174667 2.1292984
2.8957915 -0.55054951 2.1710358
10.299147 -0.50085533 2.1747394
-5.2043691 -0.29918173 2.0795674
-5.1756115 -0.28408808 2.0542865
3.3434651 -0.30099094 2.0017385
-5.2897277 -0.11176389 2.1313474
-5.1841793 -0.061195355 2.098043
10.234717 -0.14396985 2.147886
-5.6140094 0.12625429 2.140871
-5.2273769 0.12355816 2.0683184
-5.1736565 0.12634274 2.0680373
10.388036 0.1992982 2.1152601
-5.2736578 0.29035676 2.0921993
10.418204 0.21129507 2.1973484
-5.603231 0.41333878 2.1428399
-5.5061607 0.53838164 2.1663167
-5.3090143 0.46330267 2.1566226
-5.1739073 0.48794097 2.0150301
-5.6343722 0.70160693 2.0530543
-5.2386575 0.68818045 2.02916
-5.170382 0.68596637 2.0205455
10.392079 0.62119353 2.091912
-5.6234703 0.99071288 2.0551133
-5.4561191 0.93894482 2.1542721
-5.1105866 0.88781965 2.0165167
10.414063 0.86962831 2.1937714
-5.0577002 1.0768087 2.0435023
10.350628 1.053803 2.1157925
-5.5986447 1.2788029 2.0651832
-5.0404925 1.3039672 2.0569444
9.8822308 1.2917783 2.0862381
-5.6028881 1.5717444 2.0584917
-5.2151761 1.5249362 2.0307436
9.2827692 1.6827804 2.0630207
9.9168053 1.7604313 2.1233189
10.16751 1.7388637 2.1201847
-5.5775409 1.867197 2.0021133
-3.2786918 1.9309272 2.1384597
3.4322569 1.8609767 2.0171289
9.2636957 1.8212988 2.1537521
9.9288864 1.8956103 2.0067644
-5.5565972 2.0534875 2.1063666
-3.5848014 2.0300536 2.1199942
9.2029428 2.076942 2.1649237
-2.4911578 2.3603697 2.1318216
10.37328 2.2939591 2.0804272
-5.5119553 2.5596938 2.1898854
-3.3419929 2.5982518 2.1559839
-2.9188027 2.598516 2.1440773
-2.7169971 2.5736616 2.1660662
10.370693 2.5409887 2.1504011
-2.6185002 2.6325541 2.1276541
10.369313 2.9905629 2.1693726
10.499334 3.0631409 2.1964989
10.450805 3.6488047 2.0297527
10.334236 3.8441386 2.1326406
-3.5014582 4.9900727 2.0585976
-4.8406796 5.1021643 2.1709795
6.043417 5.9248857 2.1165791
7.4385681 6.4094629 2.0047359
3.7502673 6.6762075 2.0823708
4.1979537 6.7242498 2.0428753
4.7345781 6.7797565 2.0180798
6.1037116 6.9051495 2.1106625
24.527481 6.9819455 2.0291023
-3.6971371 -1.4141637 2.3771887
-3.5171039 -1.4110631 2.3531389
4.1854343 -1.4438591 2.279737
-4.9435863 -1.3643891 2.2281349
3.896538 -1.2234213 2.365593
4.444705 -1.3315754 2.247884
4.7284203 -1.2705703 2.2824774
4.8270063 -1.3945414 2.3597565
-5.6159983 -1.0536699 2.379169
-5.0299807 -1.0971413 2.2909739
-4.6992669 -1.0827687 2.3157191
2.2866769 -1.0080965 2.2323303
3.9231772 -1.0123582 2.3114862
4.756053 -1.1048462 2.2798324
4.8760295 -1.0542367 2.3591371
5.0929909 -1.0641611 2.3226902
5.4465194 -1.0836633 2.2578933
6.3818145 -1.0847174 2.3367014
6.4492941 -1.080374 2.3560801
7.3146906 -1.0096036 2.2942066
9.7739143 -1.0352622 2.2233806
-5.6025519 -0.9422605 2.2865925
-4.7897868 -0.96171212 2.3768549
-2.5078974 -0.92772537 2.3541489
-2.2756963 -0.88003772 2.3315129
-1.920912 -0.86022413 2.3749838
2.5154891 -0.870682 2.3186564
2.6193395 -0.93709517 2.3174229
4.006268 -0.85875028 2.3660827
7.7374353 -0.97364557 2.3248272
8.2769489 -0.95957905 2.2174439
9.4006376 -0.81408769 2.3659773
-5.627192 -0.7385208 2.2081127
-2.2729661 -0.72669107 2.307435
-2.1154141 -0.72912991 2.3563588
-1.8437476 -0.64572179 2.3718259
2.4932635 -0.68996203 2.3472867
2.6797516 -0.72270584 2.2079477
2.9220264 -0.65111315 2.2906616
9.4127169 -0.72665942 2.2803676
13.068358 -0.75315547 2.3193703
-1.860392 -0.50171506 2.3354425
2.5576878 -0.54188907 2.2724187
2.6648245 -0.54762399 2.3121619
2.8945394 -0.49922085 2.2850184
9.386013 -0.48456076 2.2926633
9.440464 -0.51374745 2.3177338
-5.6084194 -0.304804 2.3472455
-5.5808506 -0.30189401 2.2395964
-1.838299 -0.28120095 2.2727513
-1.7244511 -0.28331268 2.3417759
2.7350578 -0.39422768 2.3350329
9.3996334 -0.33921325 2.290596
-5.562808 -0.085922971 2.3444293
-1.8241696 -0.15425938 2.3647237
-1.7291824 -0.18314555 2.3424053
9.3729115 -0.16517633 2.2865977
9.4043522 -0.13492113 2.2778075
9.7257557 -0.17876749 2.232254
13.239122 -0.035842061 2.3070803
-5.6377277 0.099660128 2.3469634
9.3818922 0.088291496 2.2795014
9.4070568 0.13808423 2.3342004
9.7546253 0.16989544 2.2387555
-5.6182165 0.30338916 2.2937131
9.4260187 0.21710503 2.2734501
-5.575448 0.51754719 2.3285377
-5.5843644 0.74207795 2.2655697
10.409706 0.60601711 2.2763228
-5.6370506 0.81351209 2.2208052
-5.5715008 0.9728238 2.2779183
10.411532 0.92272615 2.3551545
10.376101 1.0883601 2.2720757
-5.6244392 1.3859812 2.2525954
10.078676 1.3543947 2.3443131
10.39073 1.2720449 2.3519671
-5.5441675 1.4519439 2.20227
9.8746052 1.5711763 2.3085418
-5.561173 1.6957883 2.2528293
-5.5687771 1.8218114 2.2645013
-3.0678802 1.9121134 2.253262
-2.8763416 1.8809187 2.200814
9.9334755 1.963182 2.2067995
9.2541704 2.081826 2.2121224
10.446662 2.5258911 2.3359532
-4.0128527 2.6151285 2.3553123
-3.6705189 2.6104317 2.2038345
10.35256 3.4504423 2.3051624
-1.6280324 4.8064737 2.2142744
0.087452829 4.9983764 2.2897778
-5.2641091 5.1344304 2.2462339
0.61512274 5.0149431 2.3261185
0.91368669 5.0268211 2.3361073
1.6790414 5.070591 2.293457
2.6751022 5.1251588 2.295126
2.916821 5.1474824 2.2423191
-0.41668987 5.2735415 2.3674088
0.15569466 5.2704678 2.2587848
0.3777349 5.2684259 2.2254438
23.892794 5.2315431 2.2584629
1.411629 5.5330105 2.2585335
1.8365815 5.5685248 2.2116928
2.1638777 5.5916586 2.2121773
-1.2909708 5.7085242 2.3937626
-0.99063212 5.7198319 2.3829975
-0.57840449 5.7350211 2.3765469
-0.24196249 5.7536798 2.3437119
24.75038 6.2850409 2.2911453
10.069417 6.6092134 2.3147907
6.5344515 6.9221239 2.2998333
21.733095 7.2409382 2.3316765
7.8547921 -1.7023301 2.5835638
-5.6177855 -1.4088557 2.5315366
-3.8292758 -1.4151465 2.4026041
2.4845164 -1.5437461 2.5071125
8.2332726 -1.5717437 2.5043688
8.4936333 -1.4317378 2.4155607
-5.1292176 -1.3720988 2.5881886
4.5711641 -1.3811753 2.4652958
-5.6232815 -0.96723151 2.4187775
-5.5498333 -0.85839552 2.5443053
-2.5360947 -0.94327581 2.5323296
-2.2483563 -0.88665175 2.4632988
-2.0182686 -0.87171012 2.551666
-1.9422495 -0.85589725 2.4873023
2.3976834 -0.93473095 2.5097044
2.4617579 -0.94582891 2.5430722
3.8242376 -0.82831013 2.5721998
9.4126749 -0.89120263 2.5600419
-2.2699533 -0.74881852 2.430378
-2.1760924 -0.68572557 2.4731863
-1.8782868 -0.71845615 2.4234447
2.5429034 -0.69243234 2.5640936
2.7189975 -0.65499353 2.5549064
3.0559583 -0.68341827 2.4817829
3.9162102 -0.74638736 2.5997767
9.4085474 -0.73616111 2.4014359
13.110593 -0.73908883 2.5960195
-5.6064749 -0.53559792 2.5213976
-5.5590925 -0.46313483 2.5519094
-1.8986027 -0.53688085 2.5082746
-1.7697415 -0.4509092 2.4503069
9.4210663 -0.57571256 2.5927258
-5.604425 -0.29255629 2.495266
-5.4947944 -0.29470688 2.5197554
-1.8555964 -0.30702263 2.5079331
-1.7156503 -0.28197816 2.4495797
9.4037685 -0.24482733 2.5595183
-68.86866 -0.10641479 2.4228439
-5.4753671 -0.086185336 2.5290303
-5.3637371 -0.10294278 2.5557005
-1.8299507 -0.17243475 2.4008462
-1.7522466 -0.16389927 2.4448798
-5.6190662 0.15712273 2.4912601
-5.4936123 0.10839348 2.4684339
-5.3381324 0.11900028 2.4628849
-5.6169338 0.2356652 2.4700484
-5.4049091 0.31282699 2.4604468
-5.3944364 0.31338385 2.4779696
9.4656086 0.20699397 2.5410824
-5.5632553 0.52998698 2.4946117
9.5308571 0.50482959 2.5421903
9.7856607 0.51656687 2.5013371
10.385041 0.57201278 2.4849558
-5.6063356 0.6982764 2.5049124
-5.5589323 0.78155464 2.4251308
10.370041 0.92993343 2.5955358
-5.5638542 1.0422771 2.5230536
-5.5778446 1.454549 2.5331705
-2.97328 1.5442749 2.5573201
-5.5311799 1.6213539 2.5383472
9.9602375 1.7432905 2.5662334
-3.2678709 1.9196947 2.4804647
-3.0394039 1.8445859 2.4519882
9.3090382 1.8047847 2.569895
9.2469234 2.0677373 2.5903549
10.360675 2.5868049 2.5732377
10.351725 2.9180655 2.5299988
-2.4748516 3.118293 2.5703206
10.339744 3.4175205 2.4978218
10.342587 3.870976 2.4384203
-4.3458986 4.3672943 2.5936499
-2.455308 4.2229042 2.5484619
-1.9767704 4.7505159 2.5976772
-2.4663935 4.8124561 2.4838438
-5.255403 5.0761023 2.5399456
-0.78775287 5.2820358 2.4243126
-4.4688234 5.5968885 2.5539589
-4.1522183 5.5572953 2.5612717
-3.3771081 5.4687543 2.5697327
-3.0106888 5.4302835 2.5715675
-5.1712313 5.6858869 2.552227
-4.7164574 5.6274147 2.5534439
-2.8194523 5.6587281 2.4770069
5.0653782 6.8516145 2.5745888
5.7455277 6.9425888 2.4641438
9.4801664 6.8448009 2.5966206
24.640585 6.9583397 2.5405622
-35.494587 8.9713497 2.4291229
0.29090893 -1.8129663 2.7200813
0.71687984 -1.8068945 2.7314663
1.1120751 -1.8004782 2.7556839
1.709649 -1.8066635 2.7338619
1.4497905 -1.7978394 2.7706299
1.9086077 -1.7739091 2.7750497
2.3062787 -1.7498072 2.7376003
2.6135297 -1.7552234 2.6860714
2.8443613 -1.7519881 2.6948452
9.416625 -1.6911299 2.7090387
-5.3638029 -1.5274911 2.790626
-4.6509271 -1.4092805 2.7184887
-4.5805087 -1.4338098 2.724751
-4.7136359 -1.382544 2.7104244
-0.57649392 -1.3438526 2.6473858
3.4476948 -1.2781231 2.6219969
3.6673188 -1.3439981 2.6718068
4.1931887 -1.3258905 2.6180604
5.5417476 -1.2015522 2.7717168
5.7502217 -1.3041855 2.6164486
9.4431992 -1.3701267 2.646018
-5.1180043 -1.1240633 2.676028
-4.8901324 -1.0876693 2.779012
3.7784686 -1.0129752 2.6143138
5.5240312 -1.0768548 2.7008007
5.950809 -1.0379937 2.708045
7.969439 -1.0371082 2.7986689
8.1630688 -1.0335366 2.7650015
-5.56885 -0.97863251 2.6854196
-2.9104204 -0.89167207 2.784749
-2.2378807 -0.883614 2.6859007
-1.4243071 -0.83960986 2.7677712
-1.3667538 -0.83617473 2.7821906
4.1439209 -0.98571318 2.6411853
5.9238672 -0.98547322 2.7484407
7.53016 -0.98886389 2.7823324
8.7178974 -0.95079529 2.7880807
-5.5388808 -0.75973356 2.7579639
4.0352526 -0.75432569 2.6343737
7.4686637 -0.78406775 2.7860932
-5.5763025 -0.46378541 2.7075109
-5.42698 -0.25721586 2.6402006
-68.617699 -0.043301344 2.7487068
-5.3397675 -0.081030399 2.7418113
9.3738012 -0.18489748 2.7167306
13.235893 -0.011199832 2.759264
-5.3665028 0.12393628 2.6705961
9.4137039 0.13637602 2.7039843
-5.3753524 0.31743416 2.7846763
9.6265745 0.33956385 2.7723045
13.204562 0.33744717 2.7809868
9.5519676 0.45829165 2.6667197
10.423481 0.66046661 2.6606555
-68.912224 0.97127008 2.7533684
-5.6103206 0.86415172 2.6376739
10.424618 0.89674437 2.619544
9.8488388 1.3145878 2.7251105
10.246996 1.2759922 2.6463604
-3.2622893 1.5626695 2.6103067
-2.9867523 1.5436473 2.620759
-5.5662231 1.7970982 2.6160665
-4.1123195 1.7215233 2.7315049
10.261748 1.6922071 2.7078867
9.3187399 1.9200552 2.6860938
10.404097 1.9907343 2.6912687
-5.552247 2.1332278 2.6356516
9.9412365 2.021008 2.6454077
-3.3229334 2.3866441 2.7551022
-3.048311 2.3581822 2.762785
-2.61183 2.328691 2.6154664
-3.5966675 2.4147367 2.7611179
10.409764 2.7229376 2.6511092
-2.4858751 3.6417232 2.6581359
-2.1316099 4.7529716 2.6420469
23.444286 4.7813787 2.7368221
-1.395367 5.2786331 2.6091247
7.8586187 6.3695145 2.7148113
24.734924 6.211791 2.6175199
6.4432974 6.9626818 2.7150249
7.5698671 6.9663019 2.7756062
22.143892 7.2648177 2.6970348
-54.99123 -3.577347 2.890686
-5.0313025 -1.8249606 2.9569435
-5.6325579 -1.6695235 2.9816947
2.3168421 -1.7870538 2.8607635
2.5904398 -1.7844663 2.8948383
6.1437216 -1.7408457 2.9986477
-5.6116943 -1.5895302 2.8078961
-4.4404888 -1.4325716 2.9966931
3.9759805 -1.5240973 2.8799143
-5.0358324 -1.2988312 2.9440708
5.5607986 -1.2189754 2.8189535
8.2059965 -1.397266 2.8956208
8.8922873 -1.2772702 2.8047061
-5.5373135 -1.0081267 2.9736891
-5.1422224 -1.1088345 2.8551903
3.9694862 -1.0605741 2.86061
5.6650095 -1.0199269 2.845773
-5.5090361 -0.92604893 2.9437273
-5.1605272 -0.93633235 2.9132407
-3.002116 -0.9767881 2.9219019
-2.6865921 -0.93373746 2.8669608
-0.99830961 -0.82411921 2.8857746
-0.48976049 -0.8059355 2.9579277
2.5789869 -0.92574143 2.8062754
2.6414726 -0.89603996 2.8369663
5.5451679 -0.98395723 2.8287656
7.3844466 -0.97137964 2.9020972
7.4499407 -0.93380821 2.9013901
-5.5211253 -0.69834173 2.8498781
-0.57853818 -0.79548955 2.9219251
7.5147572 -0.7458967 2.911864
13.154824 -0.64080489 2.9747562
-5.6024399 -0.55952191 2.9236112
9.4222918 -0.5477981 2.955029
-5.4993601 -0.30144122 2.9586263
9.4058533 -0.21024457 2.9580476
-5.5752144 -0.071258485 2.9998794
-5.3458729 -0.081526265 2.8207872
-5.6044903 0.14529696 2.9658022
-5.5697832 0.13340947 2.8946862
9.4310102 0.14894497 2.9277573
-5.6075754 0.33508825 2.9884586
-5.5428667 0.29130968 2.88375
-5.3771238 0.34305537 2.8280039
-5.568171 0.55875987 2.9709282
9.5847187 0.47386134 2.9349563
9.6550446 0.45200354 2.980041
-5.5549607 0.97508335 2.899461
10.435147 0.94142866 2.9602857
10.290113 1.2660851 2.8700933
-5.5440207 1.4371006 2.9321682
-3.2752726 1.5555843 2.9761744
9.3756914 1.5710062 2.8495421
9.9378338 1.4210888 2.9312286
-5.512393 1.678643 2.9937763
10.123884 1.7539513 2.9518905
-5.5450611 1.805657 2.899159
-3.3294311 1.8541335 2.9424772
9.3281994 1.8860364 2.9472923
9.9324999 1.9111373 2.9947629
9.2801285 2.08426 2.9549112
9.3213739 2.2178218 2.8167858
-3.8460257 2.4282866 2.9243593
10.41519 2.7301552 2.8933051
10.366049 2.8887901 2.8093224
-2.500618 3.0673923 2.8162327
10.162228 3.3427358 2.8000784
-5.1893854 4.9933882 2.9259052
-5.2274508 5.6302805 2.8288574
7.4756508 6.3157477 2.9861717
9.9558887 6.8838882 2.8561821
-3.6925998 -1.7999414 3.0172658
5.830328 -1.7296085 3.0604525
-4.4388909 -1.4451559 3.0122643
-0.5702889 -1.4302415 3.1435623
7.6514053 -1.5773748 3.075079
8.5449829 -1.4192274 3.1788406
-5.4102197 -1.3315654 3.0430903
-5.1185422 -1.3049518 3.0503411
-4.8713017 -1.3331332 3.0386152
-4.5547137 -1.3288449 3.1265244
7.0294418 -1.2672701 3.0789125
7.3740311 -1.2268798 3.0149148
9.424964 -1.2307441 3.1581519
-4.9541321 -1.007043 3.0333292
-4.5532455 -1.1382306 3.1679027
-2.26898 -1.0470924 3.155611
7.5084939 -1.0040836 3.0493953
-5.5899949 -0.95196432 3.0358734
-4.8683424 -0.92224872 3.1299181
-1.3238913 -0.81063914 3.0999575
-0.50241172 -0.82232583 3.0354095
6.5333958 -0.87938583 3.0904937
7.8061395 -0.8895812 3.0763779
8.3526945 -0.99079347 3.0306921
9.3905411 -0.90048969 3.0110424
-5.5697365 -0.71304947 3.0515742
-5.3793421 -0.73959851 3.1759892
-1.3267053 -0.78349471 3.135107
-1.1494273 -0.78757948 3.1869168
7.6541166 -0.74352455 3.1095934
-5.5325165 -0.50953144 3.1638634
9.3690996 -0.4775044 3.1275787
9.4369888 -0.40656066 3.1744404
-5.5705099 -0.30799186 3.0419052
-5.3454876 -0.36846381 3.1371253
-69.620323 -0.041944504 3.1116447
-69.12056 -0.04791975 3.0128593
-5.5640764 -0.10295609 3.0290654
-5.1542702 -0.031806111 3.1283894
-5.6090012 0.14827782 3.0132742
-5.5194511 0.11261642 3.0393734
-5.330348 0.12264065 3.1423371
-5.6082888 0.32243288 3.0119565
9.4895916 0.23292233 3.0042267
9.8248177 0.29946852 3.1008759
10.210714 0.5739879 3.1219556
-5.5835576 0.96604466 3.1327806
9.9764977 0.91102266 3.182056
10.071668 0.90592635 3.0840902
-70.677155 1.0120602 3.1057129
-70.226135 1.002805 3.0333633
10.085887 1.0265191 3.1345491
9.892849 1.2945833 3.0457973
10.003154 1.579406 3.0041833
-5.5520334 1.7886701 3.0792489
-4.0088148 1.6060519 3.107275
-3.3822794 1.875536 3.0015721
-2.9290204 1.9740677 3.0746484
9.275156 1.9950744 3.1509514
9.8312206 1.8482635 3.0322776
-5.5448079 2.0722661 3.0192294
-3.2349448 2.0323138 3.1861029
-4.1981311 2.5700252 3.1358099
9.9833851 2.517786 3.1025245
10.140328 2.5913334 3.022958
9.9729471 2.6523321 3.076375
10.006777 2.6358757 3.1976042
9.9784679 2.9125595 3.065937
9.9880772 3.2648633 3.0814242
9.9572182 3.6970029 3.010251
9.967907 3.8204587 3.0357351
23.570303 5.1547179 3.1332264
24.826027 6.3380327 3.0821953
5.0542107 6.684401 3.1206131
7.7148871 6.9844208 3.0750322
10.300324 6.9072466 3.1052361
24.720226 6.9737792 3.0046911
22.205013 7.2347565 3.0862923
6.5555873 -1.6825292 3.3726735
6.6646271 -1.7160405 3.3729715
6.8419247 -1.6905693 3.3389444
8.4956684 -1.4447732 3.2659082
-4.8504477 -1.3196392 3.3887615
6.6455307 -1.334789 3.371294
8.961709 -1.2779651 3.3256807
9.4318867 -1.3686624 3.392195
-4.5313916 -1.0290507 3.2625844
6.542244 -1.0803356 3.3243773
7.441505 -1.0538135 3.3601079
7.6243982 -1.1792576 3.2921481
-4.6715178 -0.83801782 3.2449546
-4.5661297 -0.93473649 3.2617702
-3.02461 -0.93549281 3.2752013
-2.977365 -0.89640892 3.2471776
-2.4453204 -0.86799908 3.3267422
-2.24402 -0.95304263 3.3118784
-0.45169619 -0.87805003 3.2657297
6.3936319 -0.89094669 3.3768229
6.4439449 -0.89217228 3.2097602
7.662776 -0.83018911 3.2129467
9.399931 -0.85202056 3.3178909
-5.5277762 -0.67688298 3.3064137
-2.4203088 -0.6418072 3.3819437
-2.2876496 -0.72337866 3.3915424
-0.65984386 -0.78853261 3.3146706
-0.50087732 -0.77314341 3.2937708
6.5098476 -0.73237288 3.2118683
7.6398287 -0.77668637 3.2328873
9.4428978 -0.6473645 3.3805852
-5.4409561 -0.22896378 3.3872435
-5.3342223 -0.30889383 3.3025331
-70.638123 -0.032783508 3.2852974
-70.118393 -0.035255909 3.2178307
-5.3102436 -0.094336592 3.2778018
-5.463861 0.14646952 3.3799448
-5.3509336 0.10925207 3.2470262
-5.4666386 0.34046158 3.3600721
9.4626045 0.26357386 3.3892879
-5.4850779 0.51480615 3.3618772
9.4654417 0.55536377 3.3738112
9.6518679 0.41233873 3.3189068
-5.4296813 0.76841843 3.3098936
9.7889099 0.63732606 3.3526516
10.022253 0.63777733 3.2641592
-5.4802494 0.9404825 3.315876
-5.3912811 0.95522332 3.3159356
9.9918165 0.93181205 3.3362441
10.054583 0.91415757 3.3795853
-5.4287639 1.0915514 3.2780826
-5.4600716 1.284173 3.3330553
-5.0673361 1.2605405 3.3391657
-5.4210992 1.5316129 3.271081
-3.320142 1.5501107 3.3850317
9.9316597 1.4205704 3.3267848
-5.4567242 1.7132399 3.2950659
-5.3995805 1.6855667 3.2452459
-4.0284491 1.6052157 3.2295227
9.9242353 1.6438348 3.3243229
-5.3785682 1.8101723 3.2255917
-4.0279746 1.9877479 3.2626693
9.2979317 1.9379036 3.3056824
9.8907299 1.9157038 3.3198419
-5.4820113 2.1746287 3.3634586
-3.2210374 2.0088 3.3348095
9.3077736 2.1794415 3.3153572
9.8764858 2.2198143 3.3371334
-4.2323961 2.4937153 3.3988402
9.9744701 2.496531 3.2813921
-5.4941893 2.60744 3.2818251
9.979105 2.8201108 3.3450949
10.185336 3.3379676 3.3208907
10.635377 3.2999439 3.3554168
-2.4593647 3.4364185 3.2254295
9.9752579 3.7868657 3.3310869
10.174903 3.6318169 3.3654354
-3.2885566 5.2636642 3.3898172
24.756893 6.9368014 3.2634473
22.212204 7.2073011 3.3723736
-4.2264595 -1.7726752 3.5135164
5.3510246 -1.7202799 3.5371034
6.3856459 -1.6843235 3.4955294
-5.5145621 -1.4354143 3.4766903
6.9031649 -1.4372449 3.5721693
6.6468363 -1.3721941 3.4691298
-5.6105595 -1.0386289 3.428113
-5.5199823 -1.0763419 3.4583607
-5.0368495 -1.1216955 3.5204306
-5.5771937 -0.81074536 3.4251952
-2.2698736 -0.86889142 3.4834373
-1.7224123 -0.98061484 3.4467058
-0.42858452 -0.86399299 3.4314342
-0.39402324 -0.83704937 3.5822163
6.5022292 -0.88580334 3.4779124
8.1430492 -0.86704504 3.4359946
8.2876444 -0.85951585 3.5915966
-5.5830998 -0.79938996 3.43417
-1.2407107 -0.75788808 3.5150588
-0.97844934 -0.7694245 3.4013977
8.5007782 -0.78132284 3.5257554
13.171121 -0.60089839 3.4766779
-5.4491639 -0.5240581 3.4184721
-5.5413537 -0.33553058 3.5238616
-71.116333 -0.024009705 3.4114037
-5.4673138 -0.099397063 3.4705215
9.4353132 -0.18573487 3.4141729
-5.5043211 0.11299206 3.459466
-5.1862659 0.012060761 3.5771227
9.4417915 0.17727661 3.4173717
13.168808 0.030498981 3.4817486
-5.5337305 0.21289758 3.4094143
9.3877373 0.48821452 3.462399
9.4684086 0.46007177 3.4919424
-5.5728698 0.69307584 3.4853568
10.024362 0.93231523 3.5177741
10.016927 1.0308257 3.582047
-5.094141 1.2644727 3.5132399
-4.2012081 1.212523 3.5846219
10.078416 1.2709656 3.4878788
10.097714 1.7885447 3.5721037
-5.5048013 1.8713315 3.597506
-3.9694061 1.9500089 3.5069413
-2.6592104 1.873121 3.5850868
9.3100471 1.9298155 3.4151175
10.091282 1.9545463 3.4848673
-5.1421118 2.1105504 3.5091763
10.243808 2.0320582 3.5942879
10.166811 2.5193634 3.4294877
10.577403 2.7599204 3.4785051
-2.4315462 2.9873967 3.5447159
10.602538 2.8854227 3.5148687
10.178462 3.0273843 3.4014199
9.9799566 3.2173228 3.4231844
10.675835 3.8251181 3.5039558
10.541371 4.1820488 3.5551529
23.553982 5.1375618 3.4408226
5.1007538 6.6390147 3.5741901
-2.8704405 6.9535389 3.5690651
7.8177075 6.9299469 3.4705048
10.430955 6.8868456 3.5095158
9.1680622 7.0404139 3.5948925
-72.378082 20.091434 3.560955
5.2497149 -1.7119 3.6317458
6.5669088 -1.648427 3.7176905
-5.34091 -1.3544285 3.7956405
9.4709644 -1.3605871 3.6270771
-4.9104772 -1.0654023 3.6935048
-2.3055501 -1.0009782 3.603626
6.4323096 -1.0163282 3.7930243
-5.4239225 -0.87021899 3.7497385
-2.2645757 -0.90456605 3.6129556
-1.7999654 -0.97936606 3.7262745
-0.3776798 -0.84264255 3.6953559
8.1091709 -0.83956689 3.7593317
9.4219704 -0.86530745 3.7914751
-5.5521154 -0.75539422 3.7447865
-5.139708 -0.72574037 3.7912507
-1.2436019 -0.75190395 3.6334498
-0.5489378 -0.73800063 3.6786594
-0.35537702 -0.72517365 3.7150037
5.4297252 -0.75625056 3.783505
9.4543934 -0.63321465 3.7301624
-5.4787693 -0.54841471 3.7494082
-5.1301408 -0.48301896 3.7526696
9.3961182 -0.48848459 3.717999
-5.5351906 -0.31962889 3.760283
-5.3170795 -0.31159335 3.7431512
-5.1454878 -0.33515948 3.7977412
9.4573898 -0.36758125 3.6202011
-5.4358215 -0.092122361 3.6740184
-5.1530833 -0.091459706 3.7534108
-5.4564953 0.11117353 3.7513905
-5.3401141 0.1122709 3.7019789
-5.1520953 0.15791684 3.7461591
-5.5688167 0.35095227 3.6898279
-5.1602716 0.34543991 3.7592287
9.4331675 0.27265432 3.6874022
10.217136 0.35629272 3.7260895
-5.5450697 0.56583828 3.6714349
-5.1424041 0.50913489 3.7563236
9.5075016 0.53634 3.7094533
-5.4846191 0.76540589 3.6839538
-5.3067112 0.63464904 3.6939714
-5.1486969 0.73098433 3.7375293
-5.5311141 0.82238424 3.6822598
-5.108572 0.96144235 3.6672406
-4.9847746 0.85172313 3.7644444
10.227688 0.95236695 3.6857624
-5.5199699 1.0519614 3.6513801
-5.1093121 1.1244235 3.7253697
10.381701 1.0535834 3.6011014
-5.5149536 1.2460058 3.656671
-5.3704367 1.3573817 3.7511029
-5.0911965 1.2772179 3.7368011
10.273704 1.293997 3.7094581
10.443668 1.2650452 3.7081523
-5.5260782 1.4760331 3.6406889
-5.1131372 1.4642293 3.6764488
9.9696293 1.4611517 3.7489076
-5.4755597 1.7446113 3.6873126
-5.1322317 1.720457 3.7253931
9.8965645 1.7195183 3.7648063
10.032595 1.6536157 3.7065301
-5.1340656 1.9461129 3.6377141
-2.7295682 1.8777562 3.6094027
-5.1645985 2.1109781 3.7674139
9.2855768 2.1391687 3.7672904
9.8512745 2.1510386 3.6748433
-3.3615596 2.3167243 3.6521468
-2.8595974 2.2517033 3.7947645
-5.1411653 2.4787879 3.6293671
-2.4145925 2.5803204 3.7513404
10.587656 3.0019314 3.7424407
10.381823 3.2264733 3.7866592
7.3612509 3.7293594 3.6533508
7.8603163 3.7556605 3.7459412
10.457491 3.6800051 3.6176944
4.4285765 3.8126726 3.6219978
4.4518785 4.3367381 3.7015438
-5.2116103 4.8406277 3.7317629
24.777681 6.4041505 3.7177067
-1.4326525 6.9664869 3.6135712
-0.95420653 6.973773 3.6390629
-0.63704258 6.97684 3.6697464
-0.11060339 6.990129 3.7000637
0.31126589 6.9901567 3.7753525
8.9231796 7.0666137 3.6714888
-36.369362 16.367283 3.7797775
-54.949348 -3.4299319 3.939373
-5.3211112 -1.7178152 3.8309755
-5.1573648 -1.6965131 3.9241955
7.4516706 -1.6376894 3.9032328
7.6113505 -1.615159 3.8088579
6.5496583 -1.4916602 3.9619122
7.5781641 -1.4254209 3.8172426
9.4089546 -1.4039016 3.9115717
-5.2087913 -1.3442825 3.8244972
-5.1256227 -1.2957969 3.9152765
-4.8050432 -1.2346276 3.9554038
-4.7659369 -1.2086036 3.9896216
2.7030988 -1.2840154 3.9526532
2.9057751 -1.2704678 3.9833663
3.0463684 -1.2455999 3.9997396
6.625073 -1.3917266 3.971693
7.9559755 -1.299304 3.8420634
8.0064926 -1.3162527 3.8657093
9.179388 -1.2815483 3.9279079
-5.0067568 -1.0090266 3.9664032
-3.4228771 -1.0209517 3.9475098
2.7116511 -1.1375902 3.918437
2.9552238 -1.1448517 3.9763236
3.0792494 -1.1162429 3.9791808
-5.5548801 -0.90268624 3.8103597
-5.103404 -0.85225463 3.8792741
-2.830564 -0.96564412 3.8176279
-2.5580945 -0.93488073 3.8490152
-2.2315233 -0.96876979 3.8018765
4.3579769 -0.9010843 3.9913647
5.4824724 -0.89307445 3.9148331
6.3476834 -0.93036854 3.9076726
7.9541035 -0.86403382 3.9830785
8.4918003 -0.81383157 3.8684893
-5.0872273 -0.70581383 3.9070644
-1.0934925 -0.72965455 3.8290834
-0.38641429 -0.6832844 3.8217392
5.5227146 -0.73894072 3.8735037
6.2461305 -0.65539932 3.90378
7.9875183 -0.78547275 3.9611969
8.5073013 -0.77480495 3.9733353
-5.5370264 -0.58965093 3.8018954
-5.1204424 -0.53601086 3.8357649
6.2495441 -0.59535277 3.8947458
-5.1218891 -0.30551928 3.8409595
-5.1308985 -0.13180965 3.8605375
9.3896151 -0.17352013 3.9732604
9.4558506 -0.18563175 3.8690865
-5.167634 0.11270764 3.8715136
-5.1530595 0.29909787 3.8223724
10.429329 0.39756489 3.9558716
-5.1262655 0.53245372 3.8310108
9.5412512 0.48259002 3.8792479
9.6558428 0.45096469 3.8096526
9.5828419 0.70448816 3.8393841
10.43931 0.71704042 3.8113794
-5.5242281 0.87790692 3.8783441
-5.3751717 0.95838511 3.8037372
-5.1326494 0.94084954 3.8511755
10.423776 1.0078882 3.9292219
-5.5628147 1.2990661 3.9212251
-5.1520123 1.3512149 3.8067496
-5.1527324 1.4754982 3.8392553
10.05747 1.6096272 3.9632068
-3.9940481 1.9253352 3.8334544
-3.2348781 1.9564202 3.8462858
9.3511868 1.9067459 3.9171619
10.15239 1.8551557 3.8413062
10.432271 1.8483263 3.9489412
-2.6648867 2.2267308 3.8538108
9.3496075 2.3009462 3.9247789
-4.2089486 2.5197039 3.8839388
10.376541 2.6188588 3.9217975
10.560493 2.765327 3.8004899
-2.4678063 2.9499412 3.9203472
10.377665 2.9616222 3.8087444
-2.4481366 3.3268633 3.8628173
10.611955 3.5602272 3.8764162
8.1339674 3.7642303 3.8822689
10.34449 3.6061788 3.9252815
23.363194 4.7779026 3.9210091
-3.2902529 5.1482358 3.877738
-3.9050159 5.2329378 3.8230686
24.83147 6.3224535 3.9907513
4.5876331 6.4707441 3.8561592
5.0676579 6.5263772 3.8164244
0.75913233 6.9938903 3.8514118
1.0680289 6.9970927 3.907095
7.8372049 6.8460331 3.9375067
10.47071 6.8611364 3.8402462
24.753378 6.902843 3.8293817
24.800528 6.892251 3.8638859
1.348928 7.0054688 3.9417591
9.4507465 7.07584 3.8157158
9.8397913 7.0762663 3.9548149
-5.0723076 -1.7226067 4.1008558
6.7331724 -1.6637698 4.0065241
8.4043436 -1.6388228 4.1620502
-5.1694646 -1.4557018 4.1901422
